# .PCD v0.7 - Point Cloud Data file format
VERSION 0.7
FIELDS x y z normal_x normal_y normal_z curvature
SIZE 4 4 4 4 4 4 4
TYPE F F F F F F F
COUNT 1 1 1 1 1 1 1
WIDTH 713
HEIGHT 1
VIEWPOINT 0 0 0 1 0 0 0
POINTS 713
DATA ascii
1.549283 2.6467454 1.4783745 -0.99572259 -0.088729426 -0.025760157 0
2.3537309 2.642971 1.473905 -0.12073117 -0.98683733 -0.10759232 0
2.4658871 2.643218 1.47559 0.032202579 -0.99658513 -0.076033458 0
-0.79486203 2.6524253 1.4730101 0.38419586 -0.90247512 -0.19476195 0
0.36587501 2.652735 1.472689 -0.31158271 -0.77957904 -0.54329807 0
1.9738311 2.651149 1.470278 0.24000576 -0.96995813 -0.039730657 0
-0.4283525 2.6676455 1.4784405 0.44826019 0.83844721 -0.30995023 0
0.398476 2.6602099 1.470675 0.097945943 -0.95972151 -0.26332721 0
2.2029276 2.6682196 1.470984 -0.17957014 -0.97376961 -0.13974054 0
3.2010007 2.669311 1.4708507 0.15941016 -0.98423094 -0.076667748 0
3.3666496 2.6643727 1.4708786 -0.25261667 -0.96295482 0.094354853 0
1.536727 2.6714311 1.471169 -0.61395156 -0.73329699 -0.29212847 0
2.1695919 2.6720951 1.476061 -0.27386731 -0.96114522 0.034591243 0
2.1859131 2.6735811 1.4717505 -0.024604475 -0.99923742 -0.030318625 0
3.2519217 2.6777887 1.4767648 0.040535595 -0.99868333 -0.031441286 0
3.2992375 2.6753919 1.4770807 0.040535592 -0.99868333 -0.031441286 0
0.46692601 2.682205 1.473812 -0.63612026 -0.73288584 0.24130753 0
1.4582045 2.6824799 1.4711102 -0.17898162 -0.9626497 -0.20315297 0
2.0966439 2.6892431 1.475769 0.12594773 -0.97868079 -0.1622379 0
-0.34648499 2.6966529 1.471315 0.30300862 -0.70563751 0.64051664 0
1.3270094 2.7031474 1.4704975 -0.20575389 -0.97754264 -0.045560919 0
1.3692086 2.7002599 1.4776428 -0.21617587 -0.97385848 -0.069768578 0
-0.34277299 2.7229531 1.470094 0.98697716 -0.086159624 0.13584056 0
0.63651675 2.7206714 1.4754298 0.31000349 -0.94880277 0.060589623 0
-0.112194 2.741081 1.471442 -0.17073666 -0.97717804 -0.12638095 0
0.68218672 2.7423606 1.4710255 0.24899557 -0.96792829 0.033407949 0
0.05545 2.7506509 1.472741 0.49721348 -0.85636413 -0.13935305 0
-0.26640099 2.763973 1.4760385 -0.33714083 -0.7105096 0.61766672 0
0.9813931 2.7602549 1.4799592 -0.14232029 -0.98669809 -0.078560792 0
-0.76380098 -2.1844869 1.485625 -0.0091448082 0.37036467 -0.92884141 0
-0.65413702 -2.1782379 1.486936 -0.13246608 0.3014465 -0.94423658 0
-0.877437 -2.1424789 1.484213 -0.0016266863 0.6666708 -0.74535054 0
-0.65190947 -2.1425233 1.4869105 -0.12307198 0.040044315 -0.99158949 0
-0.64968199 -2.1068089 1.486885 -0.12589449 0.091462299 -0.98781848 0
-0.61134195 -2.0720644 1.483874 -0.12322585 0.086319305 -0.98861742 0
0.93257654 -2.074646 1.481464 0.003442819 0.14313915 -0.98969662 0
-0.65022552 -2.0599179 1.489897 -0.095145777 0.044964734 -0.99444735 0
0.24591599 -2.0550649 1.484589 -0.0736899 0.26534384 -0.96133369 0
-2.046962 -2.0441027 1.4862285 -0.21658747 0.97483259 -0.052832916 0
0.50540149 -2.045536 1.481707 0.018884405 0.11017016 -0.99373335 0
0.86207551 -2.0404291 1.4810965 0.016190803 0.040911078 -0.9990316 0
0.91683102 -2.045248 1.485954 -0.0098669054 0.076317355 -0.99703479 0
-0.57300198 -2.0373199 1.480863 -0.13922217 0.11713423 -0.98330909 0
-0.50884998 -2.0356231 1.480114 -0.24837855 0.18443947 -0.95094174 0
0.19417 -2.0363414 1.484688 0.258481 0.04829159 -0.96480858 0
-1.012122 -2.0267601 1.483858 0.54267609 0.16006458 -0.82454956 0
-0.61188549 -2.0251734 1.486886 -0.096004441 0.079773806 -0.9921791 0
0.52625501 -2.0205491 1.484599 -0.14087145 0.23031001 -0.96286684 0
-0.55076599 -2.0166969 1.483824 -0.091325924 0.090758875 -0.99167657 0
-0.51868999 -2.0158486 1.4834495 -0.225949 0.20503342 -0.95231742 0
0.29713351 -2.0178015 1.486766 -0.10810274 0.23588784 -0.96574885 0
0.90898049 -2.0159717 1.4821961 0.014680132 0.041037645 -0.99904978 0
0.94425601 -2.0183461 1.4809151 -0.016930437 0.085990556 -0.9961521 0
0.97612399 -2.016556 1.4806955 -0.030426104 0.098922677 -0.99462986 0
-1.53354 -2.006866 1.4869601 -0.55204815 0.82682663 -0.10770591 0
-0.5896495 -2.0045505 1.4898469 -0.087351054 0.10841694 -0.99026036 0
0.5268485 -2.0017765 1.484745 0.0556334 0.082709223 -0.99501967 0
-0.92364651 -1.9979805 1.4897316 0.080221698 0.017931122 -0.99661577 0
-0.52853 -1.996074 1.4867851 -0.14250693 0.16417463 -0.97608322 0
0.32531449 -1.9981265 1.486665 -0.065798976 0.20181087 -0.97721183 0
-1.888342 -1.987157 1.482888 0.086123131 0.99250519 0.086696453 0
-1.005634 -1.9877239 1.486866 0.93140894 0.0072124111 -0.36390302 0
-0.66891497 -1.9807529 1.489333 -0.042779639 0.22378112 -0.97370011 0
-0.560148 -1.9836481 1.4874899 -0.085207976 0.11786992 -0.98936665 0
0.348351 -1.980538 1.488943 -0.096878901 0.30068302 -0.94879091 0
0.78635454 -1.9808249 1.4877784 0.062676124 0.19745034 -0.97830725 0
0.8198365 -1.982273 1.482132 -0.022295028 0.16849072 -0.9854511 0
-0.591766 -1.971222 1.4881949 -0.056409013 0.3216373 -0.94518119 0
-0.491135 -1.9700525 1.483186 -0.225949 0.20503342 -0.95231742 0
0.43230301 -1.9769361 1.4828446 6.6930894e-05 0.12807012 -0.99176514 0
0.514521 -1.972857 1.4838115 0.046648581 0.074398987 -0.9961369 0
0.54770201 -1.9767895 1.487637 0.018884405 0.11017015 -0.99373335 0
-0.91886801 -1.967392 1.488727 0.077948369 0.14107257 -0.98692584 0
0.37653202 -1.960863 1.488842 -0.50185293 0.73944288 -0.44874033 0
1.1398309 -1.9661551 1.482704 -0.031645369 0.32417259 -0.94546854 0
0.189376 -1.956678 1.48533 0.67518985 0.0072077084 -0.73760879 0
0.51620251 -1.9508104 1.4846815 -0.065174982 0.43920347 -0.89602041 0
0.72941703 -1.9561141 1.4819075 0.12426528 0.23197535 -0.9647516 0
0.86674154 -1.9578155 1.4832315 -0.0093190139 0.1415555 -0.98988646 0
0.99907702 -1.954128 1.485036 0.059320714 0.37958631 -0.92325258 0
0.404713 -1.941188 1.488741 -0.060188353 0.2868495 -0.956083 0
0.69074303 -1.940364 1.4821121 -0.017861495 0.54412621 -0.8388133 0
0.95356154 -1.9380815 1.4867029 0.076819964 0.47020683 -0.8792066 0
1.2688875 -1.935446 1.4802361 -0.21212874 0.019654639 -0.97704411 0
-1.012035 -1.9296089 1.481624 0.97736454 0.20759895 -0.040758297 0
0.832353 -1.928936 1.488025 -0.064369373 0.41824651 -0.90604997 0
0.90804601 -1.922035 1.4883699 -0.046834324 0.42638612 -0.903328 0
1.271675 -1.904264 1.482174 -0.27690601 0.053303819 -0.9594174 0
1.250113 -1.880033 1.488399 -0.61248374 0.16269125 -0.77356011 0
1.2785881 -1.8504536 1.487062 -0.43496236 -0.084838904 -0.89644307 0
-0.41416901 -1.8444231 1.484225 -0.88864809 0.44912341 -0.092697576 0
-0.361415 -1.841457 1.486725 0.2020621 0.81255817 -0.54673588 0
-2.058394 -1.8305675 1.4851174 0.32984838 -0.92387933 -0.19402848 0
-0.020588499 -1.836632 1.4819469 0.063986592 0.5866549 -0.80730522 0
0.202011 -1.833352 1.487783 0.67892236 0.61889476 -0.39501113 0
0.060497001 -1.8285925 1.483474 0.041765213 0.86581707 -0.49861449 0
0.12056699 -1.821218 1.487824 0.041765213 0.86581713 -0.49861449 0
-0.13088 -1.817275 1.481985 -0.049987406 0.86420381 -0.50065261 0
1.284682 -1.815564 1.4814985 -0.45570609 -0.10479248 -0.8839404 0
-1.951095 -1.769763 1.489974 0.7653814 -0.62912762 -0.13560942 0
-2.0638845 -1.7519414 1.487932 -9.9815603e-05 0.99257517 0.12163275 0
-1.9552815 -1.7506735 1.4871365 0.039368767 0.99111545 0.1270446 0
-2.1043248 -1.7476881 1.4848455 -0.027750826 0.98807627 0.15144402 0
1.276978 -1.740352 1.480423 -0.52301645 -0.0098048253 -0.85226619 0
-2.240895 -1.705976 1.480508 0.51639557 0.76173651 0.39127114 0
-1.009555 -1.702364 1.489681 0.99913079 -0.039985631 0.011785327 0
1.2682774 -1.681352 1.4845185 -0.57412082 -0.12576744 -0.80905366 0
-2.24422 -1.627213 1.48821 0.99401981 -0.06163656 0.09014225 0
-1.006398 -1.59047 1.4833831 0.99673146 0.080777019 -0.0012274137 0
1.25697 -1.5661449 1.489835 -0.58670074 0.15964817 -0.79391104 0
1.464123 -1.5654711 1.480628 -0.013267539 0.57120413 -0.82070082 0
-1.157711 -1.556645 1.485296 -0.56930131 0.82173169 0.025556264 0
1.3806125 -1.5429571 1.4818926 0.12643085 0.58086771 -0.80411941 0
1.4155495 -1.547585 1.4899654 0.1880964 0.75912642 -0.62317491 0
1.475053 -1.536786 1.487317 -0.41201606 0.58667403 -0.69717741 0
1.297102 -1.520443 1.483157 -0.13406736 0.45701063 -0.87929934 0
-1.081509 -1.5114889 1.481748 -0.22747414 0.96552533 0.12655611 0
-1.073957 -1.5142421 1.489174 0.53523868 0.84269661 0.058154602 0
1.545145 -1.482653 1.4855779 -0.86971599 0.41655076 -0.2647256 0
1.876434 -1.4809699 1.4853666 0.57424223 0.67437166 0.46418619 0
1.823059 -1.435509 1.483325 0.44158414 0.77186716 0.45741075 0
-2.2274401 -1.4249001 1.482208 0.97044027 -0.2338727 -0.059575938 0
1.650351 -1.425216 1.488188 0.06878785 0.99192464 0.1065539 0
1.7604156 -1.4287043 1.4872775 -0.57548839 0.49002713 0.65474159 0
-2.2140069 -1.3154351 1.482796 0.77582717 -0.61460781 0.14265157 0
-2.1332419 -1.23939 1.485907 0.99787855 -0.059925348 0.02544277 0
-2.1298649 -1.1930799 1.4838459 0.84657067 -0.53216642 -0.010823266 0
-1.133312 -1.175833 1.488965 -0.070033327 -0.99384701 -0.085810736 0
-1.7042429 -1.167128 1.4866281 -0.093476951 -0.99379867 0.060218841 0
-1.374048 -1.159047 1.4876435 0.076765537 -0.98867327 0.12896611 0
-1.287262 -1.151836 1.486073 -0.1872182 -0.95698404 0.22165482 0
-1.01948 -1.152336 1.483997 0.65196264 -0.72917366 -0.2079675 0
-1.345832 -1.0811646 1.4889585 -0.11069451 0.99384695 -0.0038772365 0
-1.521211 -1.073047 1.483228 0.91761386 0.3938064 0.053864438 0
-1.305052 -1.070266 1.480576 0.07296358 0.99667168 0.036358424 0
-0.93479204 -1.070787 1.4857315 -0.35644585 -0.93359822 0.036616318 0
-0.91696602 -1.0737489 1.4847389 0.14586656 -0.98864806 -0.036028385 0
-1.213131 -1.0664384 1.486939 -0.19842511 0.97787392 0.066257395 0
-0.952618 -1.067825 1.486724 -0.67769748 -0.73494124 -0.024239279 0
-1.5389791 -1.00958 1.484468 0.99239808 -0.11830789 0.033900507 0
-1.408505 -0.871077 1.480606 -0.69719756 0.64063793 0.32171214 0
-1.429683 -0.583453 1.488996 0.99815261 0.050213099 -0.034206249 0
-1.423013 -0.385968 1.4831001 0.99885845 -0.04774674 0.0014397169 0
-1.421214 -0.253115 1.481059 0.99265772 0.026189016 0.11808849 0
1.286911 -0.244736 1.4893709 -0.73849452 -0.65779513 0.14809263 0
1.315076 -0.241138 1.489591 -0.22778621 -0.75870091 0.61031657 0
-1.4301585 -0.18668801 1.4832594 0.95798117 0.28230637 0.050746467 0
1.326319 -0.18863399 1.481748 -0.83528829 0.53374815 0.1319339 0
1.4224205 -0.14870301 1.4829005 0.2497239 0.72301877 0.64411324 0
1.3867345 -0.12729301 1.4828629 0.17372268 0.87754691 0.44691378 0
1.6706145 -0.126748 1.4808536 0.12653258 -0.98529732 0.11479844 0
1.877697 -0.0959635 1.48946 0.57742316 -0.78294027 0.2314887 0
-1.5066686 -0.034789499 1.4898365 0.077524059 -0.98846829 -0.13007879 0
1.564007 0.110171 1.4835 -0.6576823 0.75055808 0.064160138 0
1.8767605 0.14029723 1.4849385 0.22720522 0.92021358 0.31872362 0
-1.3090014 0.208068 1.489682 0.91810584 -0.39568031 0.022777291 0
-1.29897 0.22407199 1.484147 0.99615663 -0.054453272 -0.068606779 0
-1.313194 0.261516 1.48287 0.99879867 0.045157764 -0.019028503 0
-1.31076 0.40088701 1.489054 0.76733589 -0.64096439 0.01898035 0
-1.294636 0.50358999 1.483685 0.86751723 0.46670955 0.17203511 0
-1.258793 0.53041101 1.4832259 0.92900115 -0.30988896 0.20230122 0
-1.2645071 0.56270701 1.482776 0.93189198 0.35109827 -0.091144986 0
-1.284103 0.59604698 1.483588 0.99166727 0.038753211 -0.12285873 0
-1.253134 0.641927 1.4819421 0.93293577 -0.1426658 -0.33057123 0
-1.2847151 0.91949302 1.486936 0.72902524 -0.32880983 0.60033852 0
-1.3085459 1.112157 1.485615 0.95921278 -0.26171461 0.1068468 0
-1.2887166 1.1934321 1.4880016 0.99119037 0.081665725 -0.10427053 0
-1.304763 2.3109031 1.487137 0.47547266 -0.87441498 -0.09656214 0
3.6243939 2.341063 1.486711 -0.10670341 -0.14347966 0.98388416 0
3.6648417 2.3526006 1.484616 0.40961203 -0.35227177 0.84150022 0
4.659687 2.3651431 1.4802871 0.079068705 -0.7635386 0.64090329 0
4.6340923 2.375993 1.4846995 -0.024045361 -0.73610431 0.67644095 0
-1.284512 2.399719 1.482321 0.99054825 -0.12746231 0.050671373 0
4.7425318 2.3929591 1.4849906 0.22759946 -0.80293477 0.5509032 0
3.63919 2.4087181 1.489081 -0.16001056 0.070910744 0.98456508 0
4.5624161 2.4092278 1.4829185 -0.85234475 0.16526009 0.49618304 0
-1.288802 2.416631 1.4802074 0.9992786 -0.0097059598 -0.036715295 0
3.7109485 2.4314857 1.4853725 0.30089396 -0.30215648 0.90452439 0
3.6675539 2.4485745 1.4827 -0.24296717 0.18948492 0.95134771 0
3.7380159 2.471735 1.480016 0.076673843 -0.20987278 0.97471768 0
-1.292186 2.4931281 1.480355 0.99727064 -0.013565237 -0.072575882 0
3.7750459 2.5131588 1.485624 0.1628665 -0.47645879 0.86398011 0
3.8304687 2.5219355 1.4877075 0.34384274 -0.70877218 0.61596608 0
1.571862 2.5463271 1.4854255 0.11969801 -0.99280316 -0.0037866395 0
4.5946035 2.5409305 1.485906 -0.70119917 -0.64076984 0.31262398 0
1.6346719 2.5590024 1.4814955 0.18229222 -0.98308206 -0.017867386 0
4.5402551 2.565336 1.4836169 -0.2424213 -0.90608764 0.34675229 0
4.0091171 2.5786304 1.4830534 0.14029047 -0.92500234 0.35311377 0
-1.2408985 2.584394 1.4825717 0.13116129 -0.84111476 -0.52471203 0
4.2355003 2.5877657 1.4839904 0.019762676 -0.99691355 -0.075979486 0
4.4288368 2.5882711 1.4857404 -0.18128881 -0.89224446 0.41356289 0
-1.145555 2.5921664 1.4851825 0.15080044 -0.89143503 -0.4273206 0
2.87532 2.5965915 1.4884087 0.084415518 -0.99375653 -0.072951682 0
4.3690681 2.592886 1.482775 -0.096317977 -0.95215422 0.29004356 0
2.8357711 2.6049156 1.4822514 -0.28693116 -0.95666707 -0.049585067 0
-1.012794 2.6125436 1.4828374 0.15508653 -0.91053748 -0.38323587 0
2.7249506 2.628696 1.4817035 -0.024603501 -0.98537338 -0.16862398 0
2.7734461 2.6277821 1.486918 -0.07820034 -0.98983783 -0.11876807 0
3.5159168 2.6249371 1.4824325 -0.33126351 -0.9149009 0.2306966 0
2.453325 2.639827 1.4857125 0.28218481 -0.95509213 0.090392537 0
2.5412836 2.6341529 1.4816735 -0.066774867 -0.98627526 -0.15100417 0
0.38882801 2.6539381 1.484323 0.72908491 -0.67940158 -0.082756899 0
3.4038301 2.6552744 1.481711 -0.25763392 -0.95382142 0.15443262 0
3.1671643 2.6603575 1.4822873 0.15941016 -0.98423094 -0.076667748 0
1.4783847 2.6766806 1.4843345 -0.14734021 -0.96426535 -0.22018896 0
3.3459816 2.6726074 1.4890808 -0.099371746 -0.99504149 -0.0042098025 0
0.55860001 2.6848845 1.4812646 0.31221247 -0.94372481 0.10911892 0
2.047287 2.6801169 1.487402 0.22315331 -0.9741497 0.035143346 0
1.4114075 2.6973724 1.4847879 -0.24476744 -0.95921713 -0.14139114 0
0.32260001 2.703248 1.488476 -0.20046271 -0.6280995 0.75186819 0
0.60759771 2.7059741 1.4850969 0.31000352 -0.94880277 0.060589626 0
-0.0014805 2.7125595 1.4885244 -0.14721444 -0.83651024 -0.52780533 0
1.2701383 2.7170296 1.4850032 -0.20550102 -0.97762287 -0.04497733 0
-0.055652 2.725955 1.487005 -0.078554489 -0.87946147 -0.46944302 0
0.041549001 2.728061 1.4838639 0.18204644 -0.62753522 -0.75700635 0
0.2593585 2.7242599 1.482836 -0.17528467 -0.89515364 0.40984794 0
-0.21972451 2.7394941 1.4836895 -0.33714083 -0.71050966 0.61766678 0
-0.091938496 2.7309127 1.4862235 -0.01981139 -0.90897739 -0.41637439 0
-0.186663 2.7459061 1.484601 -0.21769258 -0.97496659 -0.04527887 0
0.068889998 2.759346 1.481495 -0.12407071 -0.95388532 0.27333 0
0.80088997 2.7607975 1.4822506 0.073144741 -0.99578261 -0.055379096 0
-0.296121 2.7991879 1.489132 -0.044299856 -0.69701278 0.71568894 0
-0.70193201 -2.163801 1.4949684 -0.062444061 0.2221892 -0.9730019 0
-0.80397898 -2.155905 1.495065 0.14171791 0.44193101 -0.88578385 0
-0.93816102 -2.128346 1.494556 0.089260623 0.42033842 -0.90296632 0
-0.69970453 -2.1280866 1.4949429 -0.1115852 0.043109786 -0.99281937 0
-0.96309602 -2.103951 1.494282 0.45670629 0.17745005 -0.87174016 0
-0.95051003 -2.0813961 1.496521 0.22645704 -0.023376592 -0.97374058 0
-0.70448554 -2.0701103 1.4924445 -0.095931791 0.041558273 -0.99452001 0
-1.6085036 -2.0331855 1.494694 -0.39930409 0.90499908 -0.14674103 0
-0.75928903 -2.033412 1.498004 -0.070088044 0.059397157 -0.99577093 0
-0.92842501 -2.028569 1.490736 0.1231608 -0.018050103 -0.99222255 0
-0.89632201 -2.0259514 1.4935575 0.072275773 -0.054466754 -0.9958964 0
-0.86421901 -2.023334 1.496379 0.028022582 -0.073865108 -0.99687445 0
-0.81175399 -2.028373 1.4971914 -0.010553936 -0.034082193 -0.9993633 0
-0.70502901 -2.0232196 1.4954565 -0.087111369 0.03537159 -0.99557048 0
0.2343165 -2.0221679 1.492702 0.10110602 0.14966981 -0.98355305 0
-0.792606 -2.0104084 1.498616 -0.0036019145 0.066209979 -0.99779922 0
-0.73894501 -2.013922 1.4975495 -0.14766288 0.13280275 -0.9800812 0
-0.650769 -2.013027 1.492909 -0.08342658 0.060432587 -0.99467981 0
-2.1344149 -2.005625 1.493992 0.94081903 -0.22298095 -0.25522351 0
-0.87717402 -2.007987 1.494982 0.079046115 0.0069770236 -0.99684656 0
-0.84507102 -2.0053694 1.4978034 0.027932219 -0.031363893 -0.99911767 0
-0.68468499 -2.0037293 1.495002 -0.076973572 0.053140465 -0.99561602 0
-1.9287105 -1.997903 1.4935529 -0.15512414 0.96267217 -0.22180797 0
-1.8895221 -1.99035 1.4996145 -0.17445922 0.97265977 -0.1532874 0
-0.96391398 -1.994236 1.490147 0.10441461 0.12942496 -0.98607647 0
-0.71860099 -1.994432 1.497095 -0.10177316 0.14931691 -0.98353785 0
-0.6212675 -1.9921246 1.4905519 -0.085207976 0.11786991 -0.98936665 0
0.2607545 -1.9982395 1.4922595 -0.062364504 0.22272356 -0.97288483 0
-0.82592303 -1.9874049 1.499228 0.088971324 0.18187818 -0.97928774 0
-0.87239552 -1.9773984 1.4939775 0.080221698 0.017931124 -0.99661577 0
-0.50087702 -1.966458 1.490193 -0.1099773 0.29641366 -0.94870651 0
0.31197202 -1.960976 1.4944365 -0.091568798 0.2134383 -0.97265583 0
-1.4637356 -1.9530957 1.4928894 -0.70955539 0.70211571 -0.05970471 0
-0.96099448 -1.9565156 1.4956825 0.047267869 0.36278841 -0.93067193 0
-0.90901399 -1.9494505 1.4960101 0.047267869 0.36278841 -0.93067193 0
0.27559301 -1.941414 1.49993 -0.030864852 0.15736149 -0.98705864 0
0.494461 -1.9468246 1.4927034 -0.12745336 0.65640152 -0.74356759 0
1.032228 -1.9442461 1.4991555 -0.063556269 0.48964599 -0.86960191 0
1.098146 -1.9422696 1.4944795 -0.053964645 0.44601014 -0.8933996 0
0.56914902 -1.93303 1.490675 -0.076869786 0.39122486 -0.91707915 0
0.72806603 -1.933202 1.490715 0.108483 0.341636 -0.93355042 0
1.150353 -1.9314151 1.498113 -0.036810514 0.36672813 -0.9295997 0
0.446031 -1.925987 1.494313 -0.0024681438 0.65785396 -0.75314158 0
0.54740751 -1.929044 1.498697 -0.12745336 0.65640152 -0.74356753 0
0.76538903 -1.9260401 1.499318 0.095462538 0.67897969 -0.72792417 0
0.79887104 -1.9274881 1.4936714 -0.037840694 0.20061253 -0.97893959 0
1.24431 -1.924475 1.4942729 -0.15633136 0.36670771 -0.9171074 0
0.92232251 -1.91957 1.4949335 -0.23001467 0.97302741 0.017633786 0
0.301588 -1.882939 1.491572 0.034804787 0.13492413 -0.99024451 0
-0.30841899 -1.8288651 1.493838 -0.001879192 0.91102076 -0.41235623 0
0.022555999 -1.8254319 1.4935451 -0.046556063 0.77307147 -0.63260818 0
-2.025105 -1.817894 1.4928305 0.37190023 -0.90896457 -0.1883447 0
0.082626 -1.8180575 1.497895 0.0095447917 0.92755276 -0.37357032 0
-1.99858 -1.807881 1.4982245 0.47085139 -0.86509216 -0.17295831 0
1.259867 -1.7851205 1.490335 -0.57029033 -0.016997509 -0.82126737 0
-1.0107991 -1.775264 1.499246 0.98965782 0.064772896 -0.12799193 0
-2.1446569 -1.750198 1.494935 0.36369702 0.92896992 0.068843216 0
-1.3263233 -1.7409133 1.4991432 -0.82263273 0.56638378 -0.049848448 0
-2.1475611 -1.731308 1.491122 0.79444873 -0.47890055 -0.37350434 0
1.263003 -1.7153771 1.4927421 -0.57017934 0.038565852 -0.82061452 0
-2.0829251 -1.694522 1.491752 0.657781 -0.1823283 -0.73080814 0
-1.008691 -1.649726 1.499121 0.99963725 -0.0013107602 -0.026901679 0
1.256488 -1.626163 1.4947751 -0.67037976 0.028570941 -0.74146795 0
-2.2328296 -1.5926565 1.4998965 0.9995411 0.025489578 0.016368475 0
1.256729 -1.596154 1.492305 -0.99552017 0.031289339 -0.089222439 0
-1.013222 -1.582283 1.497046 0.79872614 0.60159236 0.011098867 0
-2.238328 -1.555812 1.4924541 0.9553706 -0.21605256 -0.20146547 0
1.4488261 -1.5526555 1.4922985 0.1369555 0.72803724 -0.67171788 0
1.256721 -1.5416855 1.497674 -0.99552017 0.031289339 -0.089222439 0
1.454291 -1.5383129 1.4956429 -0.24713068 0.68910843 -0.68121654 0
-1.1066875 -1.5221255 1.4907964 -0.42228034 0.90385383 0.068757229 0
1.332039 -1.5250709 1.49123 0.22106214 0.77708542 -0.58929598 0
1.366976 -1.529699 1.499303 0.16714242 0.8542096 -0.49233064 0
1.499221 -1.5159065 1.4983826 -0.24713066 0.68910843 -0.6812166 0
1.543761 -1.4484479 1.495587 -0.94582939 0.32336819 -0.028979512 0
-1.521666 -1.1651521 1.4969355 0.12399707 -0.96847111 0.21607509 0
-1.34762 -1.158233 1.497427 0.080339178 -0.98761219 0.13478833 0
-1.977641 -1.143586 1.4956681 0.070134513 -0.98789686 0.13835101 0
-1.01512 -1.130599 1.497839 0.8708939 0.49146518 0.0024230594 0
-1.4844716 -1.0938649 1.494938 -0.11836069 0.99222153 -0.038563967 0
-1.033797 -1.091855 1.499689 0.89577138 -0.41030473 0.17100796 0
-1.500445 -1.0888391 1.499264 0.05934779 0.99452776 0.085979089 0
-1.268352 -1.080582 1.4901536 -0.19324423 0.97745889 0.085034132 0
-0.99570602 -1.071733 1.499298 0.66902351 -0.54902917 0.50097358 0
-1.1487305 -1.0681601 1.4977205 -0.061079651 0.99793464 -0.019892607 0
-1.536301 -1.0012439 1.497934 0.40868166 0.089252159 0.90830249 0
-1.544488 -0.98853499 1.497447 0.78818822 -0.58763176 0.18288863 0
-1.471815 -0.912305 1.49244 0.58150947 0.77694649 0.24124862 0
-1.422586 -0.822878 1.493729 0.84529847 -0.23882696 0.47794589 0
-1.4215961 -0.77865601 1.4936709 0.98789591 -0.057178881 0.14419517 0
-1.419444 -0.74167198 1.49032 0.9712922 0.02887349 0.23613095 0
-1.412581 -0.70915598 1.492303 0.99721283 -0.0259332 -0.069957666 0
-1.4184459 -0.67853802 1.492927 0.97271472 0.034732766 0.22938998 0
-1.418601 -0.628057 1.497393 0.96733111 0.15707044 0.19899583 0
-1.430118 -0.53392798 1.4989949 0.99916613 0.022553176 0.034035437 0
-1.428914 -0.481563 1.4948339 0.996351 -0.083373606 -0.01826274 0
-1.4124039 -0.464277 1.496943 0.99751502 -0.034203395 0.061594699 0
-1.421489 -0.36163101 1.4958839 0.9769147 -0.067167021 -0.20279613 0
-1.424884 -0.33198899 1.497315 0.99750882 -0.031530254 -0.063103244 0
-1.422724 -0.32478401 1.4960181 0.99747306 0.043995991 0.055783752 0
1.408615 -0.26166001 1.49512 0.45278892 -0.63585985 0.62503153 0
1.365368 -0.25768101 1.49966 -0.13767512 -0.97737497 0.16057321 0
1.339908 -0.243304 1.498422 -0.1065168 -0.98732418 0.11766561 0
-1.4263149 -0.225104 1.490465 0.99955851 -0.014465039 0.025954366 0
1.278013 -0.228615 1.493317 -0.55501878 0.017135773 0.83166134 0
1.306527 -0.204136 1.495733 -0.77333611 0.49825606 0.39203602 0
1.33162 -0.16184901 1.4980479 -0.92711353 -0.34830898 0.13835283 0
1.308113 -0.152145 1.492365 -0.86582595 0.50032526 0.0044740769 0
1.756441 -0.138439 1.490195 -0.091929518 -0.99571127 -0.010395478 0
1.713874 -0.119474 1.492301 0.10636671 -0.99390471 0.028975643 0
1.943683 -0.051621001 1.491583 0.73441684 -0.5948875 0.32671213 0
-1.485498 -0.0339665 1.4930075 0.027437696 -0.99721724 -0.069318056 0
1.54926 0.01227 1.491062 -0.97535396 0.2205987 0.004572859 0
-1.314581 0.020763 1.495409 0.99643797 0.065920055 0.052592821 0
1.5544131 0.054180499 1.4981165 -0.9964909 0.068270646 0.048425131 0
-1.3240964 0.075421497 1.4918525 0.99879354 -0.0066907946 -0.048649587 0
1.947206 0.11478999 1.495055 0.63421589 0.6994583 0.32943624 0
1.6424265 0.1306805 1.496011 -0.065499626 0.9819597 0.17738368 0
-1.3215799 0.16502801 1.4958916 0.99838001 -0.040647835 -0.039813358 0
-1.306296 0.27825901 1.491326 0.99807322 0.056180548 0.026338061 0
-1.307779 0.38550699 1.498356 0.9957341 -0.08117982 -0.043857552 0
-1.291631 0.413436 1.494683 0.49008837 -0.86680573 -0.091984577 0
-1.258708 0.42320201 1.499299 0.83894354 -0.54330343 0.031545684 0
-1.26323 0.4675 1.499436 0.983859 0.16785006 0.062030833 0
-1.281929 0.50856 1.491394 0.70897496 -0.69112641 0.14035238 0
-1.23059 0.64761198 1.49862 0.86559188 0.19085263 -0.4629536 0
-1.2818744 0.74644899 1.491215 0.89815265 0.31932431 0.30224797 0
-1.282941 0.81052399 1.491025 0.92033285 0.058262881 0.38677242 0
-1.304613 0.86731201 1.4926389 0.97547948 0.21298772 0.055461723 0
-1.308144 0.91648197 1.495705 0.87688851 -0.27352798 -0.39528349 0
-1.2942261 0.94588298 1.4964139 0.98368758 -0.14314117 -0.10894652 0
-1.277765 0.9824965 1.4921789 0.93632787 0.35093451 0.011627448 0
-1.291041 1.221024 1.4914119 0.97915465 0.14452587 -0.14271851 0
-1.3047365 1.2901635 1.4971271 0.96205664 0.22404401 -0.15572844 0
-1.319665 1.334293 1.4994709 0.95211488 0.27612773 -0.13126615 0
-1.346509 1.415575 1.496223 0.98097271 0.15501286 0.11689162 0
-1.389483 2.245065 1.497731 0.96757835 -0.20224603 -0.15128991 0
-1.341606 2.2960701 1.495597 0.33049059 -0.94276422 -0.044402547 0
-1.2864 2.32901 1.4924464 0.96044397 -0.2505798 0.12147935 0
4.6039047 2.3819671 1.4964426 0.0093884012 -0.82644856 0.56293398 0
4.693253 2.3820291 1.4977371 0.131091 -0.77092457 0.62329012 0
3.683881 2.3912361 1.490729 0.12952249 -0.14961632 0.98022389 0
4.7668047 2.4107103 1.4987665 0.18102066 -0.79318804 0.58145016 0
4.5921502 2.4998331 1.492103 -0.82815385 -0.0094923433 0.56042045 0
3.7371273 2.506784 1.498055 0.17841876 -0.41669104 0.89136714 0
1.5554529 2.5423679 1.49362 -0.26595595 -0.94653159 0.18260729 0
1.765236 2.5462747 1.4965019 0.55576974 -0.83076805 -0.030733351 0
-1.2684469 2.559505 1.492259 0.51176345 -0.7843855 -0.35048202 0
1.7424695 2.5546651 1.498032 -0.18140134 -0.98070085 -0.072934434 0
3.621516 2.555701 1.49677 -0.13355257 -0.92007476 0.3682746 0
-1.19214 2.5801227 1.4965148 0.1311613 -0.84111476 -0.52471197 0
4.1146097 2.585783 1.4992986 -0.45563847 -0.87372065 0.17031115 0
4.1931791 2.5895431 1.499226 -0.0082341898 -0.99994856 -0.0059242896 0
4.4852934 2.5815816 1.496742 -0.197162 -0.87216252 0.44772723 0
-1.0724355 2.5943069 1.495331 0.16649108 -0.92067289 -0.35304698 0
2.929842 2.6024871 1.494863 0.098473705 -0.99199951 -0.078992978 0
3.5679221 2.6048799 1.4988279 -0.24264939 -0.96104765 -0.13232061 0
2.6834331 2.6273866 1.4977905 -0.10713699 -0.99410892 -0.016405491 0
2.796695 2.6254945 1.498786 -0.35159415 -0.93515903 -0.043118905 0
2.384685 2.6363125 1.4949925 -0.11644477 -0.99163401 -0.055701144 0
2.440763 2.636436 1.4958351 0.28218478 -0.95509213 0.090392523 0
3.4410105 2.6461763 1.4925435 -0.2526167 -0.96295488 0.094354853 0
-0.78430003 2.6567509 1.4990931 0.32763961 -0.91723257 -0.22657602 0
0.38651699 2.652622 1.499846 -0.049884237 -0.70848316 0.70396256 0
1.959603 2.6534259 1.495993 0.30542403 -0.94745505 -0.095105641 0
2.2537265 2.6578321 1.4905345 -0.16221529 -0.96963781 -0.18299924 0
3.1333282 2.6514041 1.4937239 0.15941015 -0.98423094 -0.076667741 0
-0.38634801 2.6636281 1.492761 0.40449619 -0.90436321 -0.13605182 0
0.361238 2.6631651 1.496882 -0.51863337 -0.54440272 0.65927631 0
0.47233799 2.6605771 1.4908071 0.0053412048 -0.99409604 0.10837213 0
0.23081701 2.6705139 1.4984664 0.58568227 -0.68556744 -0.43240437 0
0.382505 2.6731441 1.493405 0.074557357 -0.51140994 0.85609651 0
1.498565 2.670881 1.4975587 -0.14734021 -0.96426535 -0.22018896 0
3.2690063 2.6773129 1.4941156 0.040535595 -0.99868333 -0.031441286 0
3.3163221 2.6749163 1.4944315 0.040535592 -0.99868333 -0.031441282 0
-0.38054001 2.684804 1.492818 0.46171805 -0.88610041 0.040528204 0
-0.33697599 2.69151 1.4930871 0.93411416 -0.35651353 0.018135054 0
0.063977003 2.69666 1.492206 0.88342029 -0.27194056 -0.38159797 0
0.43399701 2.6976509 1.498893 -0.10871543 -0.87636065 0.469226 0
0.57867873 2.691277 1.4947643 0.31000352 -0.94880277 0.060589623 0
1.3791585 2.699502 1.4978445 -0.21617587 -0.97385854 -0.069768578 0
1.3369594 2.7023895 1.4906991 -0.21617588 -0.97385854 -0.06976857 0
0.30127752 2.7152271 1.492825 -0.14225897 -0.65877366 0.73876899 0
0.279955 2.727206 1.497174 -0.1250805 -0.80128938 0.58505583 0
0.210742 2.7305694 1.4961085 -0.0021462727 -0.97159022 0.23665994 0
1.213267 2.7309117 1.499509 -0.18319182 -0.98199278 -0.046162829 0
0.67486662 2.7421579 1.4977708 0.15702674 -0.98693407 -0.036107756 0
0.70304573 2.7463512 1.495041 0.15702674 -0.98693407 -0.036107752 0
0.77522826 2.7573123 1.4945192 0.073144741 -0.99578261 -0.055379096 0
0.92233384 2.7686884 1.4973699 -0.057515401 -0.99356353 -0.09758871 0
0.95062459 2.7672544 1.4918177 -0.12355808 -0.98887336 -0.082843162 0
-0.2494445 2.774709 1.496783 -0.31523433 -0.83712018 0.44705379 0
-0.74972701 -2.149364 1.503001 -0.047271457 0.22448529 -0.97333026 0
-0.78473651 -2.1253829 1.505475 -0.062829092 0.029545024 -0.99758691 0
-0.91546798 -2.1105969 1.5048259 0.047306448 0.22615717 -0.97294146 0
-0.81974602 -2.101402 1.507949 -0.0047437847 0.084439591 -0.99641734 0
-0.75450802 -2.091388 1.5005025 -0.089707464 0.042540897 -0.99505925 0
-0.84198248 -2.0623679 1.502164 -0.027466038 -0.049418818 -0.99840045 0
-0.78951752 -2.0674071 1.5029764 -0.045068204 -0.010217883 -0.99893171 0
-2.12796 -2.0591049 1.5055749 0.6013478 0.32553968 -0.72966075 0
-2.07581 -2.058444 1.502937 -0.14298159 0.81832165 -0.556692 0
-1.683467 -2.059505 1.5024281 -0.18500248 0.92286086 -0.3377898 0
-1.7302819 -2.0321341 1.509747 0.36515567 0.92155105 -0.13192835 0
-1.5537825 -2.0088115 1.5050895 -0.41844797 0.86993313 -0.2609936 0
-1.5166757 -1.9926267 1.5016572 -0.61818439 0.78304267 -0.068500713 0
-1.8649145 -1.9835401 1.5078864 -0.19555151 0.97792637 -0.073618606 0
-0.7262935 -1.988397 1.5033474 -0.046156317 0.11815587 -0.99192178 0
0.222717 -1.989271 1.500815 0.33795783 0.10039455 -0.93579137 0
-0.75961053 -1.9653935 1.5039594 0.029338507 0.1535899 -0.98769909 0
-0.70594949 -1.968907 1.502893 -0.32518321 0.33473662 -0.88442481 0
0.24915501 -1.9653425 1.5003725 -0.0025955944 0.24101959 -0.9705168 0
-2.116657 -1.955232 1.509958 0.9820087 -0.16662507 -0.08885403 0
-0.81456149 -1.9563709 1.5074465 0.050529636 0.19435254 -0.97962946 0
-1.4547726 -1.9427247 1.5079403 -0.73265231 0.67819959 -0.057148423 0
-1.003121 -1.945639 1.502638 0.36407799 0.37126267 -0.85417283 0
-0.69329798 -1.943382 1.508691 -0.030402897 0.41641134 -0.90866786 0
0.353131 -1.9424011 1.506 0.10775494 0.27566403 -0.95519537 0
-0.95114052 -1.9385741 1.5029655 -0.0088251736 0.48956761 -0.87192065 0
-0.89916003 -1.931509 1.503293 0.086261176 0.44908902 -0.88931328 0
0.22122 -1.937117 1.5093189 0.31753957 -0.028143598 -0.94782734 0
-0.60345101 -1.925916 1.509202 -0.018314421 0.65739584 -0.7533229 0
-0.53083497 -1.925144 1.504181 -0.080497481 0.48617616 -0.87014538 0
0.47088349 -1.9245125 1.5058019 -0.081501633 0.92975634 -0.3590413 0
0.525666 -1.925058 1.506719 -0.025253171 0.65916008 -0.75157857 0
0.61633599 -1.920298 1.5093499 -0.21649894 0.73179787 -0.64621985 0
0.644912 -1.925079 1.50167 -0.016982965 0.60540825 -0.79573393 0
1.014058 -1.9273779 1.503955 0.076819956 0.47020683 -0.8792066 0
0.41916451 -1.917503 1.509397 -0.081501648 0.92975634 -0.35904136 0
0.93659902 -1.917105 1.501497 -0.002489324 0.8429684 -0.53795731 0
0.96854252 -1.9113314 1.5056219 0.033132829 0.59124017 -0.80581468 0
-0.43375799 -1.902428 1.5019079 -0.75632179 0.5379715 -0.3722418 0
-2.099498 -1.870548 1.502746 0.98215622 -0.18491068 -0.034310907 0
-0.37329501 -1.835906 1.509686 0.2591072 0.91404963 -0.31205246 0
0.30413601 -1.833739 1.500201 -0.027533373 0.31287664 -0.94939458 0
-1.012064 -1.8296241 1.501264 0.99960595 -0.0071183587 0.027152989 0
0.047199 -1.8212395 1.5042446 -0.017695185 0.96476322 -0.2625241 0
0.22074901 -1.828908 1.507138 0.78006285 0.51580441 -0.35418615 0
1.242756 -1.8298891 1.500247 -0.63188553 -0.052515659 -0.77328056 0
-0.066921003 -1.8118351 1.507725 0.018870713 0.95081133 -0.30919543 0
0.107269 -1.8138649 1.5085945 -0.017695185 0.96476316 -0.2625241 0
0.14269599 -1.810683 1.5022449 -0.1009746 0.98829257 -0.11437608 0
1.245892 -1.7601455 1.5026541 -0.65805817 -0.013385321 -0.75284815 0
-2.0978615 -1.7146385 1.506309 0.39536884 -0.76615542 -0.5066452 0
-2.2233634 -1.7016635 1.5064886 -0.086997002 0.96090013 0.2628735 0
1.249028 -1.690402 1.505061 -0.6945349 -0.027447604 -0.71893531 0
-2.1680551 -1.6860709 1.5030785 -0.08699701 0.96090013 0.2628735 0
-1.178568 -1.5700951 1.5078039 -0.66537297 0.74651033 -0.0011361906 0
1.25648 -1.5716945 1.500144 -0.81542611 0.017947556 -0.57858288 0
1.4002526 -1.5347695 1.501636 0.13695548 0.72803724 -0.67171788 0
1.433529 -1.53984 1.503969 -0.071870215 0.79895651 -0.59707886 0
1.256472 -1.517226 1.505513 -0.7338087 0.16400354 -0.65926307 0
1.478459 -1.5174334 1.5067085 -0.2523613 0.82059747 -0.51277059 0
1.265443 -1.499202 1.506129 -0.40069073 0.83913875 -0.36782214 0
1.523389 -1.4950269 1.5094481 -0.47930112 0.84736806 -0.22855598 0
-2.2125084 -1.486737 1.5001705 0.88318878 0.091779292 -0.45995021 0
-2.2159314 -1.4681535 1.500311 0.89765096 0.052710991 -0.4375436 0
1.8070951 -1.4449575 1.508999 0.50732899 0.76646459 0.3938902 0
1.770654 -1.4372716 1.5030761 -0.57548839 0.49002716 0.65474159 0
-2.2182555 -1.424994 1.5067201 0.91162664 0.0082433559 -0.41093659 0
1.548816 -1.425903 1.505324 -0.84556538 0.47696874 0.23983334 0
1.7446598 -1.4261181 1.502882 0.36320958 0.91505879 0.17534603 0
-2.2013791 -1.365083 1.502472 0.98080415 -0.19350125 0.024093259 0
-2.1351881 -1.2177581 1.508098 0.99425775 -0.026351742 -0.10371713 0
-1.5725579 -1.1752679 1.5055835 0.10415417 -0.97115231 0.21451142 0
-1.242972 -1.164435 1.509758 -0.26041174 -0.93934304 0.22320491 0
-2.0433879 -1.154843 1.505766 0.16920596 -0.97708529 0.1291268 0
-1.7925575 -1.1594944 1.5013815 -0.093981959 -0.99464643 0.042963628 0
-1.4161689 -1.1586111 1.5086219 0.06712158 -0.98801696 0.13898659 0
-1.0216891 -1.153908 1.509748 0.35907033 -0.92110574 -0.15044169 0
-2.0105145 -1.1492145 1.500717 0.13007979 -0.98299241 0.12963478 0
-1.2971455 -1.1420975 1.506904 0.04503813 -0.98286366 0.1787475 0
-1.0358829 -1.105052 1.505812 0.86356407 0.49383149 0.1019197 0
-1.4520171 -1.0876285 1.5021396 -0.06094563 0.99705386 0.046574552 0
-1.405767 -1.081691 1.5064225 -0.036072534 0.99589539 0.083013512 0
-1.397402 -1.0863435 1.507267 0.24707896 0.9685536 0.029256249 0
-1.346729 -1.0802925 1.5082796 -0.16083832 0.98697329 -0.0038458286 0
-1.306134 -1.071389 1.5052836 -0.18505347 0.98242491 -0.024424654 0
-1.007883 -1.0671329 1.500489 0.30202353 0.91159403 0.27888736 0
-0.90546399 -1.057407 1.50086 0.9775244 -0.20546557 0.047222618 0
-1.548039 -1.032737 1.5009969 0.80389792 0.47322538 0.36028591 0
-0.917337 -1.03092 1.50846 -0.043534543 0.99871314 -0.026017046 0
-1.593035 -1.012051 1.504577 0.63216704 -0.68274277 0.36637029 0
-1.463275 -0.93662697 1.50668 0.58867168 -0.80510211 -0.07263843 0
-1.396217 -0.90088898 1.5009021 0.68449277 -0.65705729 0.31582499 0
-1.469645 -0.89352 1.502106 0.99708891 0.053629689 -0.054199811 0
-1.393422 -0.87618297 1.50714 0.86277777 0.45975527 0.21033224 0
-1.440104 -0.842112 1.502919 0.76079667 -0.64653867 0.056357358 0
-1.461769 -0.815602 1.509215 -0.85571796 0.39067614 -0.33929193 0
-1.44767 -0.818106 1.506449 0.95205736 -0.24209139 0.18702579 0
-1.429328 -0.78337002 1.506618 0.96610785 -0.2069159 -0.15434183 0
-1.4357539 -0.75360399 1.5069259 0.91004586 0.20254087 -0.36165407 0
-1.423834 -0.71897101 1.502031 0.94041038 -0.03533981 0.33820027 0
-1.432502 -0.61759901 1.501399 0.99711424 0.075204931 0.010366363 0
-1.4228801 -0.42213199 1.504943 0.99301314 0.10635109 0.051130585 0
-1.422388 -0.278258 1.500893 0.98762923 -0.024562996 0.15487136 0
-1.425787 -0.238409 1.504998 0.98420089 0.15586565 0.083991528 0
1.392996 -0.238296 1.5078599 -0.018785872 -0.49148795 0.87068176 0
-1.4217615 -0.2217015 1.5059835 0.97797126 0.20625867 0.032087512 0
1.312019 -0.218403 1.506469 -0.64686406 -0.062034488 0.76007813 0
1.413469 -0.170389 1.507574 0.45517483 0.11914787 0.88239431 0
1.34571 -0.168911 1.509753 -0.057719804 0.25709614 0.96466058 0
1.304163 -0.15799899 1.5071861 -0.60540313 -0.70762581 0.36435249 0
1.308903 -0.140118 1.5082231 -0.3174369 0.3239381 0.89123398 0
1.3777831 -0.14897901 1.5075364 0.2497239 0.72301877 0.6441133 0
1.547208 -0.133568 1.503523 -0.700881 -0.7132774 0.0010913303 0
1.342097 -0.127569 1.507499 -0.077957392 0.86764252 0.4910388 0
1.8947855 -0.0777025 1.5084435 0.61992872 -0.75120574 0.22666803 0
1.554016 -0.063383996 1.504631 -0.9609378 0.05027201 0.27216047 0
1.561082 0.0076939999 1.5075001 -0.99284416 -0.11941304 -0.0010457508 0
1.550495 0.017604999 1.507621 -0.9817369 0.058292486 0.18109298 0
1.959216 0.015183499 1.5099914 0.89342189 -0.12848772 0.43045124 0
-1.3207691 0.0406725 1.5037855 0.99519038 0.084143899 0.050158862 0
1.562404 0.1057985 1.502615 -0.99240375 0.12293968 0.0045434227 0
1.9193797 0.11605649 1.5025254 0.53536302 0.72260994 0.43728861 0
1.7059619 0.1314275 1.5039384 -0.05957165 0.97893411 0.19529295 0
1.7467494 0.1317575 1.5084939 -0.042543016 0.97594392 0.21383077 0
1.833858 0.13300249 1.508167 0.11446093 0.96902758 0.21882471 0
-1.3061939 0.257893 1.508806 0.97168219 0.23604508 0.010790064 0
-1.264322 0.45867601 1.5049599 0.99724525 -0.011186119 0.073327154 0
-1.256319 0.56886297 1.506621 0.94580215 0.11228032 0.30471542 0
-1.271922 0.620803 1.504527 0.9333244 -0.23400971 0.27229589 0
-1.259872 0.6762315 1.5013175 0.91805536 0.21536309 -0.33285606 0
-1.262738 0.69841945 1.50103 0.94033551 0.30549288 0.14981069 0
-1.288769 0.75119001 1.504988 0.92627287 -0.11427778 0.3591089 0
-1.288309 0.916466 1.504072 0.67037237 -0.4115918 -0.61740834 0
-1.2813669 0.98844802 1.5094759 0.97405666 0.22509614 -0.023352474 0
-1.2999704 1.028682 1.509306 0.9181549 0.39603218 0.01225186 0
-1.318574 1.068916 1.509136 0.97360134 0.22529915 0.036615152 0
-1.408132 2.2337241 1.500394 0.15456079 -0.95651573 -0.24736361 0
4.663065 2.3880029 1.50948 0.0093884012 -0.82644856 0.56293398 0
4.8138828 2.4226151 1.50231 0.15376176 -0.83401418 0.52988464 0
4.5852404 2.4513025 1.505558 -0.82171911 0.19347535 0.53604579 0
4.6050372 2.4972992 1.5094085 -0.77667421 0.162374 0.6086148 0
3.7680068 2.5367224 1.5096226 0.13701747 -0.5656786 0.81316298 0
3.7997749 2.5316119 1.5031511 0.021005314 -0.69936168 0.7144593 0
4.6027589 2.53193 1.506374 -0.72867972 -0.48029599 0.48820248 0
1.5497 2.554461 1.5002429 -0.91381907 -0.40606695 -0.0066622458 0
-1.2387249 2.568079 1.507847 0.39008376 -0.82910526 -0.40052366 0
1.6683199 2.5634027 1.5080299 0.095637769 -0.99512851 -0.023930993 0
1.7078259 2.5627236 1.5023355 -0.042505227 -0.99881601 -0.023663338 0
3.651289 2.5614781 1.5013455 0.048572257 -0.87784237 0.47648033 0
3.681062 2.567255 1.505921 -0.08767844 -0.80048221 0.59290874 0
3.962966 2.5829673 1.5000875 0.20949669 -0.88154745 0.4230665 0
4.0317192 2.5824199 1.5073144 0.1354945 -0.93059909 0.3400391 0
4.0496216 2.585283 1.5053174 0.089477278 -0.9830454 0.16004854 0
1.5488945 2.5929265 1.5070009 -0.99572259 -0.088729419 -0.025760151 0
-0.973203 2.6088331 1.503157 0.23917265 -0.94967985 -0.20224896 0
3.5347095 2.60818 1.504596 -0.062681146 -0.99610114 -0.062078439 0
1.8666935 2.6145535 1.5082905 0.47648686 -0.87914777 -0.0077104238 0
2.567703 2.6287999 1.503718 -0.046545617 -0.99429005 -0.09602493 0
2.6941535 2.6247776 1.508794 0.029875226 -0.99151552 -0.12650867 0
-0.888991 2.634347 1.502496 0.21684985 -0.93841422 -0.26898879 0
-0.84227198 2.6374531 1.504837 0.19713694 -0.90135646 -0.38560796 0
2.3230729 2.638618 1.504596 -0.18417603 -0.97300965 -0.13903774 0
2.428201 2.633045 1.5059576 0.28218478 -0.95509213 0.090392515 0
2.6193867 2.6359119 1.503497 -0.057395339 -0.9983511 0.00094547268 0
3.4781909 2.637078 1.503376 -0.34374771 -0.93250018 0.11081951 0
2.2971315 2.644969 1.509879 -0.19287091 -0.97528124 -0.10782994 0
2.5069921 2.64569 1.504107 0.07173086 -0.98553723 -0.15352868 0
3.0994921 2.6424508 1.5051606 0.15941016 -0.98423094 -0.076667741 0
1.5419896 2.653769 1.508662 -0.67131156 -0.63456857 -0.38296676 0
-0.45782501 2.6641195 1.508333 0.088683397 -0.99594903 0.014859367 0
-0.416675 2.6690199 1.501369 0.24055032 -0.96821272 -0.068554468 0
-0.74869204 2.6708505 1.5086455 0.23485506 -0.96876448 -0.079614758 0
0.053312 2.674926 1.500864 0.036406923 -0.77942371 -0.62543845 0
2.112031 2.678633 1.5056269 -0.41437379 -0.89103609 0.18533511 0
0.53604901 2.685792 1.506325 0.27202502 -0.95311117 0.13259555 0
-0.38957101 2.6919 1.507912 0.62714744 -0.77677834 0.057458945 0
2.085268 2.693311 1.503714 0.21903738 -0.94875079 -0.22780375 0
-0.106633 2.715481 1.509486 -0.20217051 -0.91724813 -0.34319538 0
0.35255551 2.7181525 1.5073266 -0.14225897 -0.65877366 0.73876899 0
-0.35122901 2.7393391 1.506797 0.94226825 -0.30769297 0.13211992 0
1.0898665 2.7381248 1.501861 -0.1374616 -0.98922914 -0.050300084 0
1.1515667 2.7345183 1.500685 -0.13715179 -0.98936111 -0.048518777 0
-0.202768 2.7502301 1.504434 -0.42911935 -0.8775692 0.21384311 0
0.079397999 2.752418 1.5085371 0.31917268 -0.80909204 -0.49345601 0
0.7495665 2.7538271 1.5067879 0.073144734 -0.99578261 -0.055379089 0
0.86575234 2.7715561 1.5084741 -0.028387219 -0.99568862 -0.088308394 0
0.89404309 2.7701223 1.5029221 -0.057515398 -0.99356353 -0.097588718 0
-0.33638099 2.7923861 1.506062 0.65689546 -0.67906189 0.3276636 0
-0.89590597 -2.0812349 1.511797 0.079844385 -0.070786238 -0.99429083 0
-1.628746 -2.035131 1.5128236 -0.30438906 0.84313303 -0.4432539 0
-2.1047511 -1.995142 1.5186779 0.49638939 0.11846896 -0.85997832 0
-1.973392 -1.994603 1.519961 -0.16935828 0.87826866 -0.44717106 0
-1.521546 -1.9924945 1.5143605 -0.49160883 0.84804893 -0.1978227 0
-1.4998115 -1.9783875 1.5163546 -0.58486223 0.80428535 -0.10517265 0
0.20769399 -1.9621381 1.518914 0.28096309 0.03663829 -0.95901901 0
-0.74824899 -1.9343596 1.5121779 0.036450267 0.31300944 -0.94905031 0
-0.80320001 -1.925337 1.5156651 0.061842877 0.50967222 -0.85814321 0
-0.65537697 -1.922969 1.512017 -0.082534984 0.57331228 -0.81516927 0
-0.54426497 -1.924058 1.511734 -0.038340937 0.73880708 -0.67282552 0
-0.488379 -1.921051 1.511593 -0.12979427 0.81755483 -0.56103259 0
0.495736 -1.923038 1.5172909 -0.13225041 0.76542646 -0.62978739 0
0.798675 -1.912372 1.518653 -0.23181225 0.79506695 -0.56047451 0
-0.46187699 -1.908149 1.519962 -0.47736818 0.75430757 -0.45071027 0
0.98281902 -1.9088664 1.5121856 -0.23001465 0.97302741 0.017633786 0
1.218749 -1.906989 1.5162801 -0.41221574 0.77024305 -0.48662496 0
-1.4143035 -1.89263 1.5149722 -0.82269192 0.56807113 -0.02175357 0
1.094957 -1.8986515 1.518198 -0.034028165 0.76877064 -0.63861877 0
1.160875 -1.896675 1.513522 -0.040936138 0.66619378 -0.74465436 0
0.253573 -1.870018 1.519091 -0.33682433 0.43222526 -0.83649909 0
0.33601099 -1.864144 1.5152 0.84469712 0.42184502 -0.32944432 0
-0.29943001 -1.831362 1.512316 0.11205295 0.94935268 -0.29355344 0
-0.38845801 -1.814145 1.5163749 0.33858144 0.93551898 -0.10083079 0
-0.194923 -1.813406 1.514756 -0.19174045 0.98133469 -0.014760398 0
-0.17547099 -1.812852 1.517549 -0.067180939 0.99124724 -0.11364743 0
-0.113239 -1.810799 1.513711 0.039564405 0.96038967 0.27583763 0
-0.027923999 -1.813792 1.513962 0.078290939 0.99535787 -0.055975355 0
0.035153002 -1.8157409 1.5181791 0.026775274 0.99703515 0.072139286 0
0.071842 -1.817047 1.514944 -0.027207259 0.9827162 0.18310843 0
0.12814599 -1.819689 1.5143861 -0.0071905279 0.96286511 0.26988727 0
0.147973 -1.817928 1.515788 0.033105452 0.98449737 0.17224693 0
0.311281 -1.818049 1.514447 0.47323608 0.85634732 -0.20668076 0
0.29659799 -1.808579 1.512289 -0.3949585 0.76327419 -0.51129282 0
-1.3599224 -1.7985721 1.5185535 -0.82263273 0.56638372 -0.049848437 0
1.234736 -1.7933121 1.5131099 -0.68890893 -0.03460459 -0.72402149 0
-2.0682306 -1.7519685 1.5195916 -0.027750824 0.98807627 0.15144403 0
-1.9936881 -1.755288 1.519316 -0.089968421 0.96159798 0.25929722 0
-1.959586 -1.754354 1.515954 0.37834653 0.90781701 0.18089274 0
-2.1086709 -1.747715 1.516505 0.19544244 0.96947408 0.14806169 0
1.237872 -1.7235684 1.515517 -0.68890899 -0.034604594 -0.72402143 0
1.24131 -1.662573 1.513898 -0.91128784 0.18204173 -0.36934441 0
-2.240802 -1.64613 1.516457 0.99594498 0.067673378 0.059278272 0
-2.239414 -1.620654 1.5179125 0.99580401 -0.087861121 -0.025589971 0
-1.040009 -1.550896 1.512004 0.92640424 0.37623703 -0.014866521 0
-1.0759175 -1.5138121 1.5130811 0.20079318 0.97784376 0.059192393 0
1.295754 -1.486581 1.517738 0.05361113 0.98610157 -0.15725631 0
1.526649 -1.470445 1.512874 -0.91815388 0.36559713 0.15274866 0
1.8509724 -1.478945 1.5157905 0.52618402 0.74219418 0.41506416 0
1.7769265 -1.4446304 1.5137801 0.35992637 0.91582298 0.1781048 0
1.7808925 -1.4458388 1.5188745 -0.57548839 0.49002713 0.65474164 0
-2.138134 -1.277243 1.5102 0.7907002 -0.59805298 -0.13086571 0
-2.1364901 -1.19477 1.51245 0.90157604 -0.34129983 -0.2658478 0
-1.6572055 -1.1700565 1.5150845 -0.079747334 -0.99142379 0.10353366 0
-2.072037 -1.1600065 1.515583 0.13007979 -0.98299241 0.12963477 0
-1.6896839 -1.164386 1.5187011 -0.077498332 -0.99684989 -0.016864249 0
-2.0391636 -1.1543779 1.510534 0.06785769 -0.98466069 -0.16074403 0
-1.880872 -1.151861 1.516135 -0.027314266 -0.99873 0.042335499 0
-1.018998 -1.139625 1.513171 0.95363945 -0.27057707 0.13175713 0
-1.525666 -1.0925061 1.51759 0.6409595 0.76587307 0.051082056 0
-1.522453 -1.073537 1.518927 0.88702059 0.46170914 0.0043722945 0
-1.0025274 -1.0752116 1.5136143 -0.24305838 0.62958568 0.73793256 0
-1.216359 -1.0685406 1.5172225 -0.24701682 0.95408368 0.16943137 0
-1.152915 -1.0641313 1.5175053 0.35047263 0.91616321 0.1944581 0
-1.0374531 -1.069352 1.517518 0.77647781 0.61763817 0.12492114 0
-1.1611381 -1.054397 1.514008 -0.20090896 0.97672951 0.075067505 0
-0.97383702 -1.059091 1.516407 -0.98474818 0.16180088 -0.063964143 0
-1.0664206 -1.0495906 1.516356 -0.22165956 0.97066081 0.093191713 0
-1.565235 -1.031294 1.512044 0.44760627 0.8831321 0.14045049 0
-1.408097 -0.896056 1.517109 -0.43181211 -0.6732806 0.6001929 0
-1.405377 -0.87637198 1.518169 -0.89130849 0.43089557 0.14106114 0
-1.461527 -0.81452101 1.514111 -0.85571796 0.39067614 -0.33929193 0
-1.459097 -0.814915 1.511156 -0.85571796 0.39067614 -0.33929193 0
-1.426994 -0.66522998 1.51029 0.94295156 0.10821131 0.31485343 0
-1.430173 -0.55499601 1.514479 0.99922055 -0.013348621 -0.037150986 0
-1.418751 -0.46896899 1.519403 0.95999885 -0.26604694 0.087299764 0
-1.421411 -0.39054701 1.510841 0.98502731 -0.16858128 -0.03607801 0
-1.409788 -0.334943 1.519612 0.98082644 -0.012963662 -0.19445165 0
1.3378921 -0.229321 1.516012 -0.16803272 -0.49688935 0.85139066 0
1.316839 -0.210427 1.516879 -0.21180861 -0.07613048 0.97434151 0
1.319129 -0.18785299 1.5153151 -0.85962719 0.38903794 0.33119583 0
1.347507 -0.176847 1.5195529 -0.0095499018 0.20676814 0.97834337 0
-1.438707 -0.166976 1.511955 0.94568199 0.31256893 0.089365654 0
1.564201 -0.136949 1.5100861 0.027644677 -0.99952644 0.013516549 0
1.633296 -0.132975 1.514796 0.099475093 -0.99344224 0.056367379 0
1.544233 -0.12855899 1.518599 -0.74067724 -0.67124242 0.028826153 0
1.538956 -0.109748 1.512632 -0.98934007 0.13343801 0.058314152 0
1.9443295 -0.040805001 1.5169705 0.75956815 -0.5809744 0.29244667 0
-1.520811 -0.036437001 1.51057 0.95876378 0.12387256 -0.25578833 0
1.5601676 0.046658501 1.515353 -0.99576581 0.05228148 0.075611457 0
1.9331512 0.099655494 1.5191979 0.65118861 0.60597992 0.4568826 0
1.9609776 0.098389 1.5117275 0.65118861 0.60597992 0.45688263 0
1.897136 0.13175599 1.514313 0.26218823 0.90528083 0.33425134 0
-1.3067875 0.21127549 1.5168935 0.93163341 -0.35057384 0.095693648 0
-1.315558 0.26908299 1.515285 0.99671477 0.043987453 0.068006046 0
-1.268182 0.501436 1.511633 0.99016422 -0.11064415 0.08563143 0
-1.208896 0.60795498 1.5189019 -0.94244653 0.043736756 -0.33148408 0
-1.2074339 0.61359799 1.51667 -0.94244653 0.043736756 -0.33148408 0
-1.213001 0.62016702 1.511512 0.68858969 -0.72068596 0.080349125 0
-1.209474 0.64582998 1.514984 0.79715359 0.25218129 0.54858977 0
-1.2696326 0.70316052 1.5148029 0.80591863 0.34283155 0.48266119 0
-1.293794 0.86539501 1.5142469 0.97715741 0.10593612 -0.18423079 0
-1.274012 0.8721 1.519528 0.92608148 -0.36828479 0.0820942 0
-1.2766974 0.88444394 1.516861 -0.55246472 -0.82918459 0.085062221 0
-1.28677 0.89072752 1.5169735 -0.19109724 -0.92832494 -0.31889597 0
-1.265801 0.89591497 1.515592 0.71725875 -0.14250553 -0.68207932 0
-1.268213 0.90854001 1.519899 0.29263753 -0.39356661 0.87147498 0
-1.347371 1.388044 1.512712 0.94739342 0.31888187 -0.027570251 0
-1.390994 2.2814071 1.510844 0.72879189 -0.67249018 -0.12891591 0
4.717526 2.3997805 1.511513 0.18102065 -0.79318804 0.58145016 0
4.57833 2.4027719 1.519013 -0.719998 -0.064338334 0.69098729 0
